ply
		format ascii 1.0
		element vertex 296
		property float x
		property float y
		property float z
		property uchar blue
		property uchar green
		property uchar red
		end_header
		0.000000 0.000000 0.000000 0 0 0
-1367.691231 3537.123108 5133.147049 51 64 82
-1608.526611 4333.456421 7580.727386 90 120 140
-1093.394947 3442.296219 5450.861359 138 149 161
-646.145153 2608.499146 3585.757828 37 50 67
-377.701259 2285.011101 3048.355103 40 53 75
-292.702746 2182.625008 2893.910408 92 112 137
-279.108810 2135.712051 2781.308937 49 59 81
-317.068362 -992.101002 8079.701233 227 222 212
-329.817128 2708.740044 4562.090683 27 48 81
-297.291636 -912.592220 7690.756989 75 66 65
-253.378153 400.528908 5767.191315 177 167 154
-210.545683 -444.284773 6018.279648 209 198 185
-200.455928 1984.656334 2430.837822 68 97 129
-209.168530 -967.293835 8023.113251 159 155 150
-229.712439 2175.660515 4343.998337 0 4 10
-256.498480 1724.950027 6401.405334 0 0 0
-256.498480 1724.950027 6401.405334 0 0 0
-230.402994 2574.763298 4282.510757 38 61 97
-256.101823 2333.555222 7168.222046 18 20 30
-193.101394 2403.533173 3780.438614 88 117 144
-98.437262 -246.756148 6023.287582 162 159 145
-84.515184 495.034647 5332.384109 22 13 10
-173.712087 2570.208168 4313.361359 80 107 137
-173.712087 2570.208168 4313.361359 80 107 137
-134.624386 1971.626282 2500.273132 43 53 72
-124.392009 1893.442726 2276.893806 66 96 128
-120.074332 2142.233467 3041.772842 136 146 161
-123.625708 2669.737816 6662.873840 20 28 47
-82.291394 2109.251404 4239.027786 3 11 33
-68.300742 2119.694710 4332.316589 38 54 86
-75.558823 2265.434837 3470.685577 35 58 92
-45.070240 2058.093643 4286.283875 3 12 31
183.976400 -527.601719 6261.035156 66 49 45
231.515336 -467.809010 5966.580582 196 184 171
308.052611 -803.626060 6579.217529 44 36 33
354.263687 -609.256935 6628.410339 207 194 184
408.320904 -851.315117 6700.599670 181 169 152
407.561159 -847.084236 6679.178619 181 169 152
2.366006 1768.666267 2066.904449 76 100 130
312.751031 33.365521 5345.240784 219 212 203
69.951063 2183.682060 3416.388702 49 72 106
458.679581 -628.920460 6755.329132 46 32 28
247.629738 720.799541 4572.113800 29 17 17
247.629738 720.799541 4572.113800 29 17 17
186.247432 2359.898376 4877.502823 20 62 109
247.897291 805.927181 4397.586060 56 38 35
743.233776 -1154.012775 8403.801727 217 209 197
48.776227 1778.360558 2159.442902 41 49 64
306.554484 785.207319 4443.368912 44 30 29
303.301287 804.432678 4381.917953 213 202 191
302.570105 854.471016 4374.571991 186 174 165
298.456979 2304.006195 4742.749786 8 5 7
89.034861 1784.971619 2224.821854 138 146 161
165.475750 2030.541229 3037.631226 124 138 160
100.248790 1722.903633 2061.625671 46 50 64
549.267864 213.516426 4955.107880 227 220 211
873.090458 -494.567680 7074.513245 99 102 91
887.557507 -773.129463 7012.953949 219 211 200
647.158194 421.095657 5466.218948 78 60 47
740.575695 104.117239 5802.935410 224 220 211
740.575695 104.117239 5802.935410 224 220 211
129.884911 1583.799648 1833.630943 59 72 99
143.975091 1696.714973 2051.112366 64 78 99
944.055843 -714.122820 6913.578796 218 209 199
673.093033 2120.584679 5843.634796 211 197 189
158.445513 1682.440758 2010.001183 55 65 86
166.996300 1701.062775 2073.046112 143 147 159
165.933633 1688.062477 2028.904915 63 79 102
1390.578651 -1024.476433 8745.325470 83 87 92
1058.935833 -277.650809 6844.773102 105 106 97
896.473408 386.926913 5827.761841 137 115 99
190.875733 1639.957809 1926.811600 97 113 131
213.902950 1618.973351 1888.696289 92 108 131
210.749102 1611.805344 1859.714890 41 45 59
527.455378 2144.959068 3713.419342 65 92 128
544.728899 2189.045334 3801.276398 65 92 128
289.434648 1725.745964 2242.138481 51 70 96
965.705872 1413.256550 5551.363373 54 51 67
112.737405 677.738047 717.963076 40 59 91
884.322071 2230.248260 5180.983353 17 27 53
1900.106239 1365.726948 9626.823425 220 211 201
322.594380 1692.431068 2176.290512 42 58 84
694.100666 2090.555000 4065.034485 3 6 18
340.438890 2128.682327 2543.888855 59 72 99
1988.183975 -864.538193 9342.730713 227 218 208
429.306269 1842.516136 2688.925552 45 77 111
439.772081 1856.286240 2733.815575 79 106 136
489.476442 1921.984291 2956.891060 100 120 146
489.476442 1921.984291 2956.891060 100 120 146
1434.136391 327.148318 6768.409729 171 171 160
1434.136391 327.148318 6768.409729 171 171 160
274.150348 1565.846348 1787.607193 101 115 135
868.963432 1902.229500 4512.476349 7 22 54
911.197567 1966.085052 4686.991882 7 22 54
255.269361 1511.730671 1618.762207 68 101 126
1372.858143 1709.997177 6444.937897 15 14 24
377.657247 1644.027138 2077.957916 52 68 91
418.171597 1631.090164 2048.834991 59 73 92
712.970304 1727.242851 3152.739716 0 1 7
2434.238625 1387.169170 9275.944519 203 186 173
376.928854 1207.272148 1589.451408 43 65 98
817.220020 3351.677704 4287.652969 143 147 159
2312.504005 1208.196259 8327.571106 75 67 38
844.346905 2012.097740 3448.847198 64 97 125
801.348305 1852.474785 3238.172150 2 15 40
442.465305 1557.346153 1895.961952 122 131 146
592.181015 1695.763588 2339.682007 92 118 141
404.024315 1480.904675 1646.582985 125 138 157
679.242706 1747.944832 2547.830200 91 118 142
-177.582800 105.312622 -260.585976 56 68 79
607.075024 1668.962097 2285.850525 112 129 149
714.311123 1754.315758 2564.223862 24 50 80
621.876860 1659.561729 2262.005234 103 125 149
621.876860 1659.561729 2262.005234 103 125 149
2846.463776 3478.339386 9056.482697 124 127 136
646.141100 1636.327934 2212.950706 100 125 149
739.394283 1707.021713 2444.757843 83 110 134
705.569458 1657.964134 2291.996384 43 65 98
705.569458 1657.964134 2291.996384 43 65 98
452.046204 1439.638901 1552.508354 86 102 124
465.357018 1445.816422 1581.102276 114 128 147
727.096319 1667.347908 2324.864578 100 119 142
727.096319 1667.347908 2324.864578 100 119 142
451.001310 1432.056808 1527.613163 39 42 52
768.502331 1687.739944 2415.599251 32 55 85
702.653122 1632.703400 2221.115494 82 110 136
792.151928 1696.180725 2423.654175 31 52 81
792.151928 1696.180725 2423.654175 31 52 81
563.688707 1490.789890 1757.843018 125 138 156
726.432085 1619.565773 2188.968849 85 113 141
717.452669 1589.428806 2104.054642 84 115 140
1525.583649 2121.034622 3891.016006 41 50 62
615.368223 1448.602104 1664.948845 139 141 157
856.854916 1619.812012 2232.354164 86 108 135
1172.265148 1833.697128 2933.382034 86 119 139
876.189232 1619.840622 2225.572395 80 103 131
1144.770622 1790.769768 2830.933380 74 105 129
882.108021 1608.119583 2203.395271 99 117 144
645.357037 1447.148705 1654.599953 132 141 155
824.976921 1563.523102 2059.429741 82 106 136
651.926661 1440.643597 1660.676575 41 50 63
860.116577 1581.843567 2118.608475 95 118 140
860.116577 1581.843567 2118.608475 95 118 140
902.556992 1600.369835 2181.922913 90 109 133
902.556992 1600.369835 2181.922913 90 109 133
2176.363945 4266.598511 5683.658981 40 50 68
882.045269 1570.776463 2092.427444 85 104 133
882.045269 1570.776463 2092.427444 85 104 133
863.711452 1551.003647 2025.885010 74 96 125
1554.846001 1990.065575 3461.642075 44 57 68
789.926052 1736.156464 1922.514534 112 127 146
1164.698792 2511.495018 2870.474434 39 42 52
991.618156 1824.191666 2170.189857 39 46 58
-869.985199 1397.523308 2111.837769 106 129 145
-1288.522053 3722.010422 5241.564560 44 58 78
-1515.804386 4058.231354 6935.928345 81 99 124
-787.549782 3514.441299 6072.929382 44 63 96
-965.553188 -599.864340 7543.417358 84 77 85
-500.245667 3094.554329 4218.215561 99 112 140
-670.637274 -465.056849 6724.969482 195 187 174
-412.830162 3306.475449 5738.230896 53 80 115
-248.204613 209.353137 1477.753353 146 132 122
-248.027182 209.702277 1480.254555 146 132 122
-298.011112 3303.581619 6687.144470 1 11 34
-299.846554 1774.893188 6744.250488 0 0 0
-203.703117 2872.640800 4235.873795 41 61 97
-263.965368 -512.363243 5924.131393 81 90 103
-168.291187 2836.788750 3832.036972 65 80 111
-188.578558 -532.655239 5918.424606 86 94 107
-191.069400 -957.049465 7548.152161 208 203 196
-95.130652 2792.804527 3652.565384 38 46 68
-119.448066 -547.353077 5821.039581 174 161 149
-115.104711 -678.207970 6222.479630 72 63 65
-86.454219 -266.845965 5448.265076 147 141 133
-92.185175 432.571745 4617.166138 77 59 50
-53.139818 -739.391947 6203.758240 214 205 195
34.470183 2384.503746 4503.514862 1 5 18
64.254546 2654.421616 3413.581085 34 46 64
265.677905 -833.950806 6521.656036 200 194 184
260.113716 -795.998478 6087.653351 209 202 193
293.180323 -560.455990 6323.659897 64 49 49
293.180323 -560.455990 6323.659897 64 49 49
155.883706 2496.529007 4007.427216 50 69 106
335.122705 -608.310175 6421.224213 49 38 40
333.696365 -565.291882 6390.290451 200 189 180
201.955700 2649.616432 4298.288727 50 69 106
188.244617 2613.239098 4043.727875 92 114 144
171.013594 631.223392 3771.687698 26 16 16
372.436595 2776.625252 5242.366409 57 85 124
183.845341 787.416983 3466.827774 172 160 151
429.447699 2581.894112 5658.622360 85 81 95
189.513671 743.716335 3377.520370 147 132 129
195.059133 748.404026 3418.765640 147 132 129
606.893492 -218.911433 6333.939362 230 224 218
340.322351 2544.829369 4091.344833 45 67 103
743.734884 313.797808 5949.971390 194 183 173
764.371681 437.463617 5581.356049 32 16 10
764.371681 437.463617 5581.356049 32 16 10
392.441463 2443.654251 3073.560715 71 96 122
422.468758 2380.920982 3278.466415 44 61 89
415.940762 2427.100563 3040.340805 82 100 122
860.636902 1171.217442 4970.392227 54 55 71
590.161419 2271.983147 3415.096283 84 112 142
547.650766 2357.464218 2933.196068 47 69 94
597.309351 2265.354729 3005.737305 120 133 153
805.050468 2152.305031 3749.164200 2 4 14
807.811356 2155.882835 3756.657410 2 4 14
638.778782 2233.001137 2941.000366 122 133 153
996.487999 2242.513847 2927.093697 116 122 142
-562.667608 -271.417117 -1362.015724 50 69 106
888.775921 1942.237282 2833.857727 80 105 133
899.597454 1928.414536 2803.875732 79 106 132
915.187263 1883.968163 2790.900612 34 54 85
943.099785 1862.520218 2719.329834 79 97 127
986.201477 1853.588486 2618.338776 35 59 90
1019.835567 1806.995773 2592.800140 77 98 125
-370.113730 216.114545 -429.578161 120 108 84
334.965253 -545.315266 6353.093338 195 186 180
784.587431 447.821808 5741.353989 8 4 3
784.587431 447.821808 5741.353989 8 4 3
766.788101 2573.996353 4256.076050 20 42 81
1005.032253 1954.147530 3341.851425 70 95 125
997.192860 1469.795227 2483.428192 88 93 107
427.800179 -160.908103 -2189.141846 121 115 88
-720.227957 -1017.510796 9183.408356 45 59 69
-224.796939 649.160385 6365.831757 207 195 183
-168.202496 -529.986191 6183.001709 91 98 102
-103.565955 516.186142 5621.173859 18 9 6
-46.780154 -242.272115 5362.188721 150 144 133
-48.015699 1985.452843 7983.258057 3 3 4
128.585505 -219.446373 5312.414932 229 225 216
209.579945 -452.685785 5206.716919 229 221 212
209.697223 -359.286714 5151.238632 90 74 71
139.152706 732.376194 3731.948471 189 177 165
286.083579 -526.538849 5392.128372 189 177 162
162.501168 741.654205 3533.815765 186 177 164
200.591922 774.874115 3696.611404 52 37 34
202.769136 688.357782 3588.572311 211 200 187
210.887432 840.168667 3810.421371 185 173 163
210.452890 807.958031 3762.499237 169 154 142
249.549460 995.267296 4231.943130 181 170 162
351.439953 -504.334402 4553.124237 215 207 193
263.285446 830.395412 3842.346191 69 57 50
263.285446 830.395412 3842.346191 69 57 50
533.913374 4165.009308 8675.164032 73 99 133
436.609268 -461.996412 4496.261215 204 195 180
659.431744 4261.178589 9008.859253 22 32 50
186.722839 256.282783 1977.146530 220 213 204
540.309429 -415.356731 4741.503525 216 206 195
598.379564 -287.429547 5185.847092 92 94 84
626.923180 -647.753334 5208.263016 149 152 144
673.590422 420.987558 5550.645828 198 176 155
672.731781 -318.355203 5169.246674 186 177 164
706.953573 -571.412134 5239.247513 98 105 108
488.213015 198.063326 3766.568375 221 214 205
731.146002 -446.447039 5261.003494 224 215 205
772.116375 461.352444 5717.327118 19 9 6
772.116375 461.352444 5717.327118 19 9 6
1051.888847 3916.272736 8759.360504 6 4 4
1103.009224 398.982906 7622.764587 247 237 230
930.389404 -226.606703 6129.028702 103 101 91
770.814848 3032.277489 5964.208221 67 95 127
1133.326626 3997.841263 8546.704865 60 67 94
750.357008 2623.568535 4847.285080 62 84 121
760.057783 2649.297523 4896.862030 62 84 121
630.502129 925.731659 3445.322800 97 87 88
963.619804 2114.691544 5024.343491 16 22 41
1023.504543 1075.921822 4849.180603 168 154 146
723.184013 -316.962266 3131.084442 185 174 135
1085.101128 1301.347733 4697.072220 10 11 21
1258.444023 1315.943146 5343.081665 12 20 44
1105.573463 -424.709988 4262.405777 36 43 62
881.466961 2184.096336 3873.708725 1 4 10
1060.376930 1496.272182 4156.176376 11 25 45
2212.637138 2695.274925 6854.656982 133 128 132
1774.333954 2219.214821 5561.849213 133 128 132
1774.333954 2219.214821 5561.849213 133 128 132
1774.333954 2219.214821 5561.849213 133 128 132
1108.694077 1950.873184 3435.400772 62 76 94
1144.108963 1921.479797 3520.993042 99 106 123
1455.933189 1689.139175 4106.298065 81 85 100
1162.666798 1824.536133 3305.688858 37 45 57
1275.053787 2054.900932 3399.269867 27 35 45
1176.785755 1811.473465 3219.018555 96 104 117
1132.791805 1856.270409 3021.008873 99 119 138
1150.509930 1821.393585 2930.487633 86 114 136
1161.580944 1834.061050 2926.625443 67 95 123
1217.346478 1688.243103 2901.842880 38 47 61
664.522505 675.951290 1778.235245 102 88 60
1170.714855 1748.099899 2748.808861 84 108 133
593.206549 608.036375 1636.115456 19 10 6
588.682604 605.385542 1626.895905 19 10 6
1214.898872 1651.134682 2806.577492 35 44 58
1230.834675 1650.417328 2793.429184 37 45 58
1174.393463 1724.639893 2696.520233 85 105 129
