ply
		format ascii 1.0
		element vertex 181
		property float x
		property float y
		property float z
		property uchar blue
		property uchar green
		property uchar red
		end_header
		-769.048309 1029.145908 2301.181602 73 79 78
-714.739227 1187.875175 2266.236115 121 145 162
-717.703152 1044.385910 2310.272789 62 67 65
-361.857247 967.122841 1297.066879 122 141 163
-483.530474 1189.757252 1735.211754 92 118 141
-644.368410 1059.074593 2269.039345 113 129 137
-460.253525 1163.392448 1673.120880 117 138 155
-465.871239 1160.286427 1728.527832 55 78 103
-556.080961 1078.449631 2249.282455 103 122 129
-403.805017 1132.639122 2067.701530 38 54 76
-402.534151 883.825588 2116.992569 133 125 110
-304.945111 1196.395206 1683.634758 96 121 144
-372.154856 401.539564 2098.316765 182 175 136
-339.764404 1142.451382 2071.098328 38 52 75
-173.493278 50.242209 1665.604019 152 143 130
-171.469331 97.490078 1683.581734 179 165 153
-171.469331 97.490078 1683.581734 179 165 153
-119.476247 1245.798302 1705.728340 80 107 134
-148.929346 1198.177624 2040.782928 60 86 119
-130.758941 1195.866108 2038.371849 68 92 120
-118.672407 1243.797302 2119.863701 68 92 120
-75.209820 608.594322 2216.283417 2 4 5
-41.281137 1256.699181 1768.091393 48 74 111
27.575913 911.240959 1211.512566 41 63 98
-17.830239 1196.109390 2043.931961 5 7 18
-15.101135 1341.830921 1892.283058 48 74 111
1.328776 1261.935043 1816.163635 76 104 137
9.024083 1020.190716 2024.850655 1 2 6
42.189217 1237.163734 2062.870979 87 113 144
45.930278 1280.467129 1742.616653 56 85 116
136.721742 1647.695923 2843.841934 5 7 18
234.382677 23.330811 1974.460411 216 203 197
258.918476 -415.808821 1835.803986 105 96 98
289.660740 717.677069 2181.315804 226 213 205
288.993883 1290.407372 2091.300011 61 91 127
287.039995 1310.742664 1991.396332 82 116 149
287.039995 1310.742664 1991.396332 82 116 149
355.005217 -376.135111 1884.033203 104 97 102
342.265749 -334.951162 2798.377609 161 172 174
366.568995 -368.103004 2906.070137 161 172 174
403.898335 81.664658 1995.288086 109 81 70
477.073574 284.590816 2165.371132 227 216 208
498.188210 949.678326 2487.852097 4 26 64
388.899946 1368.396187 1814.107704 104 124 147
580.806208 190.373635 2149.357986 65 46 41
580.035877 191.818082 2146.271133 65 46 41
623.555088 39.754245 2251.509476 95 84 53
640.033865 390.748501 2213.570786 81 71 41
916.392326 1160.225105 2820.598984 106 110 121
915.425491 1387.691784 2378.435326 40 52 66
974.434280 1436.436176 2293.133163 76 88 108
1045.827198 1425.312614 2362.084961 84 90 109
1086.061859 1430.380249 2414.255714 39 49 63
1075.537205 1450.802994 2329.785728 42 43 52
1138.762093 1445.003414 2396.179390 104 111 127
-696.592808 1213.565350 1876.629639 49 75 103
-687.426949 1214.549351 1860.974503 97 128 151
-682.018185 1203.850460 1856.797600 46 70 95
-747.857571 1225.354481 2268.332672 67 94 124
-639.862537 1200.860596 1773.558617 94 123 153
-623.937273 1204.617500 1811.655426 54 75 103
-727.525043 1210.104275 2667.847824 69 74 76
-727.525043 1210.104275 2667.847824 69 74 76
-611.472034 1213.863087 1833.162498 110 133 158
-604.823256 1208.620071 1837.480164 53 74 102
-739.055204 1190.981388 3017.438126 39 44 42
-792.646217 1489.115620 3406.265259 102 118 134
-683.145237 1213.720417 2650.731468 61 64 65
-624.782515 1205.953217 2601.759911 59 63 63
-512.996149 1205.133629 1762.458229 59 80 112
-506.056786 1206.165218 1751.061058 113 132 155
-506.056786 1206.165218 1751.061058 113 132 155
-565.146923 1204.945564 2467.438698 43 56 76
-546.509123 1018.187714 2567.461205 5 14 25
-547.416353 1034.298229 2967.768478 80 89 76
-468.652725 1205.530834 1736.610031 116 142 160
-465.450096 1203.429413 1747.074127 49 72 103
-487.241173 1219.003201 2265.800095 55 66 83
-468.653202 1194.321346 2237.629890 44 58 76
-479.200554 439.283657 2736.092758 191 184 145
-471.069288 1207.686901 2400.645638 54 81 108
-438.945246 1204.540348 1746.389198 63 95 125
-431.788254 1206.670761 2325.786018 61 86 113
-411.614847 1201.189232 1734.279633 56 83 114
-403.484678 1204.060841 1717.129326 109 128 146
-356.963801 874.800968 2559.956932 129 113 100
-350.387406 1220.769596 2055.610275 44 71 110
-340.778494 1068.737888 2011.742020 11 13 17
-326.006556 1175.310135 2215.293121 11 13 17
-302.859402 -74.825978 2757.485390 194 182 164
-304.733038 1212.259865 1707.202148 113 129 153
-266.044950 983.772564 2402.680779 198 188 178
-167.890573 1227.368546 1789.088440 37 62 104
-62.447357 155.595517 2326.927948 187 170 161
-16.714486 200.783706 2304.106712 121 111 106
-39.674225 1246.787453 1755.694962 44 74 117
75.129873 1410.245800 2426.804161 2 9 20
105.410707 259.711933 2334.758186 209 196 188
65.241975 1249.506760 2047.349548 44 74 118
21.643795 1263.938713 1752.714920 109 134 164
53.174609 1264.195824 1871.235085 89 119 160
53.174609 1264.195824 1871.235085 89 119 160
157.953143 1447.806263 2016.458511 117 138 165
347.363567 722.848797 2575.993538 9 15 34
362.611032 770.387697 2576.831436 36 76 124
125.867200 1286.364746 1701.123238 43 77 117
151.295996 1290.762234 1786.347771 119 134 162
-15.718167 798.302746 969.238186 107 130 154
143.656421 1279.956627 1731.464195 34 61 96
416.502190 615.421247 2552.931404 144 136 139
453.874969 875.054359 2710.825729 226 214 208
390.811729 89.769816 2383.306694 223 212 205
193.514526 1354.622841 1791.282654 41 73 112
227.192807 1306.781578 1802.512169 29 59 99
629.658604 1028.152180 2963.864136 14 50 98
438.130569 -466.382408 2293.813324 108 105 110
687.950373 967.281532 3091.802025 67 79 96
471.505594 -400.796986 2349.136353 235 225 218
229.766464 1312.490749 1739.712334 105 131 161
241.010118 1317.671394 1769.516754 36 66 105
515.169001 -408.020639 2303.941154 111 107 117
689.378643 -1.045796 2532.073593 222 212 205
690.653467 -134.748030 2527.695656 224 216 209
349.958253 1339.991665 1759.752655 41 75 113
394.424295 1356.032658 1819.225883 31 54 90
388.188171 1351.379776 1735.095024 51 88 122
420.891523 1362.155914 1758.240128 89 119 146
942.950344 154.281771 2762.328911 88 82 55
818.891907 131.045723 2485.018730 88 82 55
511.531925 1395.591545 1832.559013 103 127 157
511.531925 1395.591545 1832.559013 103 127 157
544.134903 1403.111172 1841.610336 93 114 147
1449.519730 1327.905178 3478.089523 18 26 26
645.563316 1438.094902 1886.366653 46 71 111
612.532616 1430.160618 1815.427017 97 122 151
634.976435 1440.615273 1845.865059 46 71 111
634.976435 1440.615273 1845.865059 46 71 111
623.884678 1445.012951 1792.477226 118 140 161
705.815792 1460.842133 1929.240608 115 129 158
978.848553 1440.523052 2415.217590 61 71 90
966.017818 1439.735603 2389.193535 90 103 125
708.294439 1467.174625 1797.977257 111 131 153
1104.824734 1469.223309 2366.399574 42 49 61
1139.799023 1501.776886 2423.815727 45 52 63
-699.813747 1047.392368 2253.768158 103 114 126
-622.677565 1247.426510 1833.696365 85 113 137
-626.616383 1246.398640 1880.148315 100 125 145
-676.605034 1269.528484 2628.979301 52 69 82
-657.120895 1276.506424 2747.112083 51 54 52
-548.827267 1316.994286 1920.399284 107 124 147
-524.917555 1238.891411 1800.973320 107 124 147
-515.293169 1140.035820 1691.482544 115 130 153
-502.423382 1100.291920 1629.203796 115 130 153
-507.490349 1232.850742 1827.696037 109 126 148
-474.923754 1237.574673 1782.050896 110 130 152
-470.500755 1246.945953 1858.231926 52 76 101
-355.553317 1933.547974 2788.526726 44 62 93
-224.462175 1245.699120 1736.058998 104 127 149
-224.462175 1245.699120 1736.058998 104 127 149
-174.333179 214.095020 1744.993591 151 139 129
-167.085671 1246.337509 1722.368240 86 109 139
-138.577390 1251.097870 1771.096420 101 125 154
-138.577390 1251.097870 1771.096420 101 125 154
-79.562104 1257.692337 1783.390808 38 63 100
-33.532816 1253.105450 1764.135170 43 69 107
-14.784522 1266.981030 1829.636002 72 99 134
-13.666418 1256.342220 1776.959610 84 111 144
57.767439 1268.211651 1876.530075 78 110 148
50.917023 1266.693211 1770.969200 36 66 104
238.680816 789.057875 2236.623383 24 61 111
333.949232 1298.408794 2097.656631 43 79 117
248.688817 -351.065636 1776.665497 194 179 166
213.593149 1286.144447 1764.673615 97 123 147
285.376906 1297.384167 1877.517891 73 106 143
340.423155 1299.071598 1780.193329 23 49 85
813.668060 1367.453480 2300.048256 74 87 104
681.743574 1353.670311 1958.106613 95 116 145
681.743574 1353.670311 1958.106613 95 116 145
1038.786221 1404.147911 2445.622063 34 45 60
1037.344646 1412.129498 2249.820900 72 81 98
964.578533 1394.310188 2117.263794 31 35 49
