ply
		format ascii 1.0
		element vertex 115
		property float x
		property float y
		property float z
		property uchar blue
		property uchar green
		property uchar red
		end_header
		-634.273243 560.190678 1651.579094 64 73 79
-207.484198 625.660133 827.947330 28 44 65
-321.141148 496.782923 1206.137371 35 41 52
-616.325712 565.697908 1950.324059 39 50 53
-290.589905 541.779137 1159.706116 45 46 46
-303.532457 446.663094 1219.080925 50 62 76
-255.882335 608.146477 1105.350208 65 83 104
-245.889306 576.116705 1098.739433 28 32 33
-367.461944 444.437981 1442.069721 33 44 54
-233.344412 316.308022 1172.205162 19 26 35
-222.474051 289.549065 1167.654133 6 10 19
-342.426538 316.144085 1525.126934 8 20 33
-201.990938 289.142704 1166.003895 102 95 88
-123.154294 648.317766 932.544994 71 91 110
-133.742344 -269.304276 1179.805374 136 130 95
-134.048545 -165.823615 1179.992294 66 59 62
-134.048545 -165.823615 1179.992294 66 59 62
-124.144077 524.672794 1047.072792 158 149 140
-129.943693 354.506874 1102.436733 182 172 162
-109.165049 206.325340 1102.862072 19 22 31
-83.712244 631.613064 1017.434883 5 7 15
-73.913783 646.285915 998.005867 44 64 96
-74.286550 527.838850 1026.843357 172 160 154
-28.628778 673.357105 939.647770 63 84 111
-28.628778 673.357105 939.647770 63 84 111
-39.795706 552.336931 1023.075104 10 28 57
-39.795706 552.336931 1023.075104 10 28 57
-25.408578 669.580698 956.158638 67 84 113
-14.076947 674.191761 938.614273 71 86 112
6.818855 651.061440 1084.028053 50 65 90
18.630697 594.696331 1045.907688 112 109 111
18.630697 594.696331 1045.907688 112 109 111
74.312365 617.510843 1102.001667 117 110 111
89.829952 689.565992 951.085758 37 48 73
89.829952 689.565992 951.085758 37 48 73
135.857344 698.833752 963.468552 32 50 78
146.979296 644.456339 1156.442070 25 19 21
154.003000 673.866844 1095.724106 73 90 115
180.622339 644.053078 1200.825977 28 29 40
178.750050 697.515202 966.107273 90 103 121
202.545762 399.215055 1209.580708 167 151 143
205.222106 372.712255 1210.264301 49 51 70
206.699777 363.866973 1206.280422 22 35 62
209.949064 340.074015 1139.065361 22 35 62
214.038110 402.188206 1236.054516 17 28 47
206.271744 581.688833 1197.519207 128 114 108
231.102467 542.486191 1274.002743 23 37 56
240.474105 429.196262 1238.065243 7 18 39
238.879919 566.773272 1269.040966 25 38 59
248.147988 585.697222 1249.508572 39 51 69
283.004880 -26.569349 1111.395645 197 186 178
307.063627 -131.747067 1151.471233 19 26 43
277.725840 698.809719 1092.467594 57 83 113
307.729101 -121.427250 1071.261311 19 26 43
354.516435 702.303600 1151.864147 18 21 26
400.577354 677.344179 1227.968216 80 87 100
400.577354 677.344179 1227.968216 80 87 100
384.771752 707.343864 1080.193710 61 84 107
-18.861780 205.065179 1074.965096 148 136 132
86.118549 696.616554 942.788601 62 83 110
159.818065 698.636150 947.007847 68 82 108
328.901172 -62.183279 1221.229839 77 64 64
377.585173 659.881830 1071.019650 24 27 35
-499.641228 571.297359 1650.310516 96 102 107
-366.084599 373.625350 1458.205891 63 73 83
-351.646924 368.242550 1518.113422 76 90 96
-349.346638 314.052248 1646.910477 121 120 92
-318.372846 451.125002 1220.410252 22 31 37
-318.008280 717.506981 1085.675526 75 97 122
-315.232372 296.826339 1751.744080 149 153 148
-295.668268 630.636644 1199.890041 6 3 5
-295.668268 630.636644 1199.890041 6 3 5
-270.330715 411.831951 1160.262299 123 113 103
-244.461250 -227.980900 1159.133434 151 145 110
-249.531388 10.331357 1136.873627 83 73 62
-244.944906 202.953053 1370.660782 125 119 84
-237.538075 -17.536037 1149.523926 95 86 76
-229.454732 44.347295 1183.717251 84 76 67
-252.480388 719.923496 1073.034668 73 92 118
-214.273334 -120.873630 1129.552269 98 89 94
-214.273334 -120.873630 1129.552269 98 89 94
-214.301610 269.869685 1125.119400 99 88 87
-180.036008 -217.466116 1261.583614 10 12 22
-203.992987 264.222121 1118.664169 10 13 21
-190.357113 215.965176 1133.823395 4 13 30
-167.373502 -98.472291 1020.693016 182 173 168
-181.897092 604.417562 1099.750233 105 97 107
-157.569623 688.715410 1133.436966 31 50 87
-129.343235 -163.727748 994.287682 180 170 166
-131.725824 104.349899 1016.743851 159 148 140
-154.333615 723.970366 1059.532928 72 94 122
-100.871038 -243.104744 1068.278599 138 138 108
-102.798474 199.073136 1064.978027 98 87 88
-53.708196 501.633263 1073.510933 129 122 117
-4.062128 553.674889 1087.604141 164 152 146
40.359807 684.852219 1134.614372 56 78 109
98.602319 -12.283821 1128.833294 195 185 178
63.311559 660.426903 1128.237629 19 22 35
66.002542 636.317778 1118.205833 114 109 114
99.374872 310.884666 1112.865829 25 40 68
92.224079 170.683491 920.524788 168 156 152
147.399950 672.399044 1176.400280 58 68 89
159.087074 703.358650 1143.485355 57 84 109
115.221548 749.329948 1027.541447 26 44 71
282.161880 207.248187 1187.115479 125 113 107
290.707898 350.100994 1207.845306 54 45 34
290.707898 350.100994 1207.845306 54 45 34
191.145968 755.034065 1025.544453 63 86 111
447.214222 411.950779 1485.990620 16 11 8
337.973905 33.936393 1151.184082 25 27 39
500.845242 472.818041 1557.214737 76 66 48
286.675382 763.198280 1013.567257 68 80 108
312.900829 756.623173 1016.519737 59 77 101
532.255316 552.562475 1367.223263 2 0 0
387.661481 771.375847 1018.169689 54 76 104
