ply
		format ascii 1.0
		element vertex 63
		property float x
		property float y
		property float z
		property uchar blue
		property uchar green
		property uchar red
		end_header
		-121.915543 165.312397 1778.630257 70 71 62
97.159714 713.967609 1656.446266 15 30 62
109.055233 193.987119 1539.517403 160 147 145
119.043732 -133.570921 1438.511658 147 138 129
146.783519 289.798450 1598.139381 9 9 14
148.062944 537.398672 1666.452217 11 36 76
145.774293 83.364975 1498.805332 132 121 117
147.054696 84.084374 1493.823528 132 121 117
151.870048 -48.890954 1467.398834 147 136 132
158.392859 649.532127 1661.976051 139 133 133
161.460972 1120.870590 1781.887817 62 83 119
202.931666 785.486174 1635.854149 153 148 149
221.816421 -176.042747 1489.683914 214 207 204
295.706439 389.905119 1762.533951 8 25 64
300.224137 278.221941 1666.575813 138 129 134
300.416517 277.728248 1664.705658 138 129 134
355.253553 760.029888 1845.724297 217 208 204
430.542326 363.289094 1963.703156 39 62 106
431.151152 1087.567806 1896.901894 64 62 75
465.695477 1084.877396 1915.585518 41 38 45
518.998766 1031.493950 1926.124382 48 55 74
505.201292 1041.618443 1828.853035 29 32 41
594.251156 795.316219 2080.368805 73 77 94
567.314959 1195.858574 1915.842056 77 108 138
616.160059 927.515030 2012.094116 13 45 86
635.943556 1209.039497 1962.883377 27 43 62
691.587830 1233.670425 1975.121880 69 103 133
1107.809162 1592.596817 2628.576469 56 68 90
964.776611 1318.185711 2245.597649 23 25 35
964.776611 1318.185711 2245.597649 23 25 35
1084.803009 1355.019569 2405.047607 36 44 62
1010.737133 1319.155407 2218.265533 56 68 90
120.309269 717.415810 1671.519279 124 118 124
133.985877 -287.255955 1496.597958 10 23 45
119.165552 691.536951 1684.801865 178 168 161
135.053432 738.130808 1634.039497 28 50 85
170.881450 749.216938 1630.209923 52 56 76
309.357595 -4.811915 1845.381927 202 192 185
353.001380 773.453999 1889.980316 202 190 184
406.521177 1082.389545 1848.187828 42 38 50
1024.818325 1351.749802 2404.419518 35 41 60
-726.479387 1284.612274 2229.170990 86 103 114
255.898905 -146.441913 1084.015179 97 88 85
114.990711 696.555805 1693.034935 181 169 167
139.107442 591.428137 1642.059898 16 34 64
182.274175 784.679270 1631.263924 39 44 65
214.759374 520.638943 1623.644638 21 42 78
224.603224 -189.003766 1473.924255 203 194 192
214.326811 -191.846883 1515.867329 203 194 192
196.488965 -441.485882 1502.226162 144 146 128
279.256558 979.136467 1682.528877 140 132 137
279.256558 979.136467 1682.528877 140 132 137
249.068403 -417.671824 1496.741867 162 158 126
242.487764 -381.385159 1577.342892 182 178 173
290.066338 1180.100441 1876.416206 24 38 59
354.684210 1042.435169 1773.663330 125 117 124
449.694824 1154.814720 1835.496902 89 106 132
435.452795 307.107067 1843.249130 39 48 79
680.610275 462.411594 955.021667 87 95 112
551.478291 1156.152916 2295.313644 17 16 22
598.098421 869.513893 2274.297523 70 73 86
724.976587 1265.266705 2412.113190 87 95 112
903.542423 1233.473492 2114.637184 26 31 46
